ncols        110
nrows        39
xllcorner    498130
yllcorner    485895
cellsize     10.000000000000
78.897321428571430602 80.803750038146972656 83.312813043594360352 95.097187519073486328 104.45484280586242676 104.59578180313110352 104.63984429836273193 104.65703177452087402 104.55906355381011963 104.38640666007995605 104.21562492847442627 104.05062580108642578 103.88999974727630615 103.73000061511993408 103.56999969482421875 103.40999984741210938 103.24953150749206543 103.08609414100646973 102.92437469959259033 102.75531291961669922 102.55671894550323486 102.39968717098236084 102.33515751361846924 102.28624987602233887 100.76812446117401123 95.019844293594360352 88.297032356262207031 82.393437385559082031 76.774218201637268066 71.097342967987060547 65.41250002384185791 59.704844653606414795 53.299374580383300781 46.232968330383300781 40.734218955039978027 38.796094119548797607 37.2732810378074646 35.286718785762786865 36.459062278270721436 37.727343738079071045 41.362343430519104004 47.790624678134918213 53.29687422513961792 58.720468521118164062 64.069843053817749023 69.484373927116394043 75.67203223705291748 82.105156064033508301 87.946094274520874023 90.311250090599060059 89.645156145095825195 88.833749771118164062 88.077030658721923828 87.335311770439147949 86.768438100814819336 86.538593888282775879 86.55546879768371582 86.755469202995300293 87.331718683242797852 88.115312576293945312 89.104999899864196777 90.129061579704284668 91.139843106269836426 92.12984311580657959 92.958750128746032715 93.668282747268676758 94.344842791557312012 94.902344226837158203 95.355000495910644531 95.67734372615814209 95.945624113082885742 96.201405167579650879 96.369532108306884766 96.456408262252807617 96.487969279289245605 96.441718459129333496 96.388281464576721191 96.334062099456787109 96.279218435287475586 96.221092462539672852 96.102968096733093262 95.916719675064086914 95.718749523162841797 95.520781040191650391 95.326717734336853027 95.128594279289245605 94.929062008857727051 94.715936899185180664 94.402500033378601074 93.983281612396240234 93.547968029975891113 93.11187446117401123 92.673125147819519043 92.207031369209289551 91.706092953681945801 91.203904986381530762 90.700623393058776855 90.199842214584350586 89.70234227180480957 89.207342624664306641 88.715781092643737793 88.225626111030578613 87.735625624656677246 87.245624542236328125 86.752344489097595215 86.140312671661376953 85.328750133514404297 84.56125032901763916 83.996406912803649902 83.583927971976137883
78.197142328534809508 78.869686484336853027 80.82984316349029541 90.536875128746032715 103.62437534332275391 104.47031164169311523 104.47734344005584717 104.35562467575073242 104.16609334945678711 103.98390519618988037 103.80109286308288574 103.62671899795532227 103.46390616893768311 103.30375039577484131 103.14375019073486328 102.98328042030334473 102.82046818733215332 102.65812444686889648 102.49562454223632812 102.33359408378601074 102.16109371185302734 102.03968703746795654 101.9925001859664917 101.95906281471252441 101.0973440408706665 96.007188081741333008 89.253437995910644531 83.166251063346862793 77.610468149185180664 72.099530696868896484 66.585625588893890381 61.039062917232513428 54.764062225818634033 47.750312447547912598 41.608281314373016357 39.06687551736831665 37.739531755447387695 35.69890594482421875 35.794531285762786865 37.434531033039093018 39.97171860933303833 45.690156042575836182 51.817499458789825439 57.64874953031539917 63.020311832427978516 68.372499167919158936 74.166718959808349609 80.179688096046447754 85.702188253402709961 88.967343449592590332 88.599686503410339355 87.801405787467956543 87.050781488418579102 86.438124895095825195 86.064531564712524414 85.832813262939453125 85.840312600135803223 86.177499532699584961 86.898749828338623047 87.862969636917114258 88.895000457763671875 89.927343487739562988 90.949062585830688477 91.87671959400177002 92.617655634880065918 93.318595051765441895 94.01703178882598877 94.639532566070556641 95.027501344680786133 95.304687738418579102 95.55921781063079834 95.725156784057617188 95.812501907348632812 95.888907670974731445 95.92890632152557373 95.888281464576721191 95.834062099456787109 95.778437137603759766 95.725936532020568848 95.687343716621398926 95.626564264297485352 95.468281149864196777 95.274999260902404785 95.078592538833618164 94.881406545639038086 94.685000181198120117 94.488594412803649902 94.289999842643737793 94.054374933242797852 93.708124876022338867 93.30156099796295166 92.87906348705291748 92.443906545639038086 91.977189421653747559 91.476876616477966309 90.977501034736633301 90.482344388961791992 89.990781068801879883 89.500468850135803223 89.009531378746032715 88.519373893737792969 88.029374480247497559 87.539375424385070801 87.049375534057617188 86.54531252384185791 85.865624547004699707 85.039999961853027344 84.220155596733093262 83.550156474113464355 83.087499209812705203
77.922857420785092586 77.903750300407409668 78.327344298362731934 86.673282265663146973 102.56546902656555176 104.29593706130981445 104.15265572071075439 103.94765603542327881 103.76187551021575928 103.57796823978424072 103.39515554904937744 103.215781569480896 103.04046857357025146 102.87624990940093994 102.71562516689300537 102.55484366416931152 102.39203131198883057 102.23000061511993408 102.06578099727630615 101.89390599727630615 101.72250008583068848 101.63906180858612061 101.625 101.61406314373016357 101.21562516689300537 96.921250462532043457 90.291562795639038086 84.246719241142272949 78.860624790191650391 73.490780830383300781 68.067186295986175537 62.549999058246612549 56.280624926090240479 49.299062609672546387 42.666874825954437256 39.364062488079071045 38.075938045978546143 36.327031075954437256 35.332187235355377197 37.095155835151672363 39.086875498294830322 44.374219357967376709 50.755156636238098145 56.612031519412994385 61.906249701976776123 67.031406641006469727 72.23578178882598877 77.672813773155212402 83.05218803882598877 87.272343754768371582 87.64796757698059082 86.887656450271606445 86.212969064712524414 85.734376430511474609 85.401719093322753906 85.136875033378601074 85.158749580383300781 85.695625424385070801 86.620625138282775879 87.646250486373901367 88.657344818115234375 89.62546849250793457 90.577499508857727051 91.492186665534973145 92.239218354225158691 92.948281764984130859 93.648749828338623047 94.290469765663146973 94.66609501838684082 94.918280720710754395 95.080625176429748535 95.167032599449157715 95.242970705032348633 95.319532632827758789 95.367343664169311523 95.334062099456787109 95.278437137603759766 95.225155472755432129 95.181719541549682617 95.165000438690185547 95.123750925064086914 95.002968192100524902 94.828592300415039062 94.631562709808349609 94.435000181198120117 94.239063262939453125 94.041562557220458984 93.844688296318054199 93.628437995910644531 93.35687410831451416 92.986249804496765137 92.590000629425048828 92.18734288215637207 91.750000596046447754 91.265155792236328125 90.774373888969421387 90.28437507152557373 89.79437565803527832 89.303906679153442383 88.8125 88.322500109672546387 87.83250117301940918 87.342499613761901855 86.85249936580657959 86.324374675750732422 85.585780978202819824 84.752343893051147461 83.918750166893005371 83.151250600814819336 82.634463310241699219
77.61857114519391132 77.595468044281005859 77.541720032691955566 83.342344284057617188 100.20562517642974854 103.95968711376190186 103.73093700408935547 103.53812551498413086 103.35562574863433838 103.17500066757202148 102.99484431743621826 102.81343817710876465 102.6292191743850708 102.45421886444091797 102.28828132152557373 102.12515640258789062 101.95781302452087402 101.77703166007995605 101.58062493801116943 101.3753122091293335 101.19468724727630615 101.08875024318695068 101.08500051498413086 101.09109377861022949 100.91718685626983643 97.733125209808349609 91.449843525886535645 85.372968435287475586 79.932030797004699707 74.629062652587890625 69.316406369209289551 63.939374566078186035 57.83671879768371582 50.91171872615814209 44.065155982971191406 39.744061887264251709 38.341406166553497314 36.958437860012054443 35.15687483549118042 36.582812190055847168 38.436875998973846436 43.161563098430633545 49.596405863761901855 55.399530708789825439 60.504530966281890869 65.404999613761901855 70.026719570159912109 74.942969560623168945 80.272657394409179688 85.258281707763671875 86.717654824256896973 86.129218578338623047 85.530000090599060059 85.092187643051147461 84.753750324249267578 84.452029824256896973 84.568905353546142578 85.360936880111694336 86.323750138282775879 87.239844560623168945 88.09953153133392334 88.953438043594360352 89.957343459129333496 90.976874589920043945 91.772499322891235352 92.526094317436218262 93.253436923027038574 93.913750529289245605 94.277656197547912598 94.437656402587890625 94.522500991821289062 94.598908305168151855 94.675001144409179688 94.750936985015869141 94.805936694145202637 94.778437137603759766 94.724999189376831055 94.675156235694885254 94.651249170303344727 94.643124699592590332 94.610625624656677246 94.507188677787780762 94.36874997615814209 94.186562776565551758 93.989532113075256348 93.792969107627868652 93.596875548362731934 93.397499203681945801 93.180625081062316895 92.952186465263366699 92.645467758178710938 92.258437752723693848 91.866718292236328125 91.486250519752502441 91.060312151908874512 90.577500820159912109 90.087500691413879395 89.59749913215637207 89.106093168258666992 88.615625500679016113 88.125625133514404297 87.63562464714050293 87.14562523365020752 86.655313611030578613 86.082811713218688965 85.297187566757202148 84.463437438011169434 83.629999995231628418 82.810156583786010742 82.196428707667763547
77.29785646711077618 77.290156245231628418 77.237656474113464355 80.377968668937683105 96.822186946868896484 103.48671817779541016 103.31656253337860107 103.13484406471252441 102.9537501335144043 102.77203106880187988 102.58687508106231689 102.40078198909759521 102.21578192710876465 102.02984380722045898 101.84375059604644775 101.65406334400177002 101.44656312465667725 101.22984325885772705 101.0140615701675415 100.82468843460083008 100.65781331062316895 100.51812493801116943 100.48531174659729004 100.49171781539916992 100.47046852111816406 98.467187762260437012 92.682499527931213379 86.521874308586120605 80.98062431812286377 75.678592681884765625 70.389375209808349609 65.107656776905059814 59.350468456745147705 52.663749933242797852 45.658436954021453857 40.294062197208404541 38.575624525547027588 37.393905937671661377 35.522968530654907227 35.894374549388885498 37.967031300067901611 41.905780971050262451 48.180468380451202393 53.913906455039978027 58.91218799352645874 63.654062092304229736 68.133437633514404297 72.63781285285949707 77.555624961853027344 82.87781226634979248 85.814843654632568359 85.456562399864196777 84.868126034736633301 84.453592658042907715 84.105000615119934082 83.780155539512634277 84.001249909400939941 84.809843778610229492 85.640312671661376953 86.455155849456787109 87.283436417579650879 88.242656230926513672 89.366719603538513184 90.429218649864196777 91.252031326293945312 92.023905277252197266 92.791094064712524414 93.479218125343322754 93.783124446868896484 93.876406669616699219 93.952970147132873535 94.029533743858337402 94.105626106262207031 94.182497501373291016 94.244217157363891602 94.224999189376831055 94.173593759536743164 94.138437509536743164 94.128750085830688477 94.121249914169311523 94.097969174385070801 94.003281950950622559 93.881719827651977539 93.732657313346862793 93.543125391006469727 93.346875548362731934 93.149998784065246582 92.949218630790710449 92.73203122615814209 92.509374380111694336 92.264687538146972656 91.92328178882598877 91.533437013626098633 91.166406750679016113 90.807813763618469238 90.375156283378601074 89.890624880790710449 89.400469541549682617 88.909530997276306152 88.419373869895935059 87.929375290870666504 87.439375400543212891 86.949374198913574219 86.45390629768371582 85.825156688690185547 85.009531974792480469 84.176406502723693848 83.342344045639038086 82.508750438690185547 81.805000577654155336
76.961785588945659242 77.028281092643737793 76.824530124664306641 78.244218230247497559 92.740156054496765137 102.6171867847442627 102.88781225681304932 102.69843733310699463 102.50062525272369385 102.30265676975250244 102.10265600681304932 101.89968740940093994 101.69578194618225098 101.49078094959259033 101.29249989986419678 101.08875000476837158 100.86999893188476562 100.65249812602996826 100.45765554904937744 100.28843700885772705 100.12406265735626221 99.964687824249267578 99.89015650749206543 99.894531130790710449 99.904375076293945312 98.759218335151672363 93.815000176429748535 87.680468916893005371 82.041094064712524414 76.75343787670135498 71.505625724792480469 66.248125910758972168 60.62265545129776001 54.361719012260437012 47.428750038146972656 41.189999878406524658 38.785468339920043945 37.711874186992645264 36.019374489784240723 35.367343306541442871 37.427187323570251465 40.721718728542327881 46.70406264066696167 52.327968895435333252 57.23937523365020752 61.849218547344207764 66.299062669277191162 70.744218230247497559 75.27609407901763916 80.542343258857727051 84.746875286102294922 84.86078178882598877 84.208436846733093262 83.725625514984130859 83.311407804489135742 82.994844198226928711 83.235781550407409668 83.981719374656677246 84.796094059944152832 85.617343544960021973 86.536249399185180664 87.637498617172241211 88.789531946182250977 89.878750324249267578 90.730000615119934082 91.500155925750732422 92.25890505313873291 92.874686479568481445 93.12640678882598877 93.254688501358032227 93.367032647132873535 93.456876277923583984 93.536874890327453613 93.612966656684875488 93.681561112403869629 93.67156219482421875 93.629999160766601562 93.615156412124633789 93.608750700950622559 93.60125124454498291 93.584687948226928711 93.49593663215637207 93.376718640327453613 93.254688024520874023 93.09359443187713623 92.899998784065246582 92.703124165534973145 92.501249194145202637 92.282499313354492188 92.060000181198120117 91.83640587329864502 91.565468668937683105 91.199999213218688965 90.836249351501464844 90.494376063346862793 90.131875038146972656 89.691093325614929199 89.203905344009399414 88.71249997615814209 88.22250056266784668 87.732500433921813965 87.24250030517578125 86.752500057220458984 86.244374632835388184 85.548124909400939941 84.720469117164611816 83.88718724250793457 83.053437471389770508 82.21984410285949707 81.474999427795410156
76.387857709612163148 76.489843845367431641 76.120781302452087402 77.768280386924743652 89.065781712532043457 101.40796923637390137 102.35046863555908203 102.13406229019165039 101.92499959468841553 101.71671915054321289 101.50953137874603271 101.30046820640563965 101.0934375524520874 100.89124965667724609 100.7001570463180542 100.50578093528747559 100.29187250137329102 100.09109282493591309 99.91875004768371582 99.755782008171081543 99.593593478202819824 99.435623288154602051 99.318594813346862793 99.298906683921813965 99.305781722068786621 98.785938143730163574 94.639063239097595215 88.730624556541442871 83.134685993194580078 77.877812743186950684 72.645469784736633301 67.390157341957092285 61.785624802112579346 55.844062566757202148 49.313593566417694092 42.401875197887420654 39.107968330383300781 38.02249908447265625 36.711249768733978271 35.162030875682830811 36.938905954360961914 39.701875090599060059 45.217812538146972656 50.75609356164932251 55.511562883853912354 60.022187530994415283 64.470468759536743164 68.926249504089355469 73.422656416893005371 78.50562596321105957 83.383749246597290039 84.319530725479125977 83.572343587875366211 82.901093959808349609 82.402345061302185059 82.230782032012939453 82.485623955726623535 83.137656331062316895 83.956406116485595703 84.837813019752502441 85.908125400543212891 87.059529542922973633 88.209999203681945801 89.327656745910644531 90.209062576293945312 90.96796870231628418 91.664529800415039062 92.186405539512634277 92.390625238418579102 92.536406397819519043 92.678750276565551758 92.814687490463256836 92.93593597412109375 93.035623073577880859 93.113748788833618164 93.121405839920043945 93.101563692092895508 93.095000743865966797 93.088750004768371582 93.081249117851257324 93.068749427795410156 92.988749504089355469 92.871874809265136719 92.753594517707824707 92.623750448226928711 92.452030777931213379 92.25703120231628418 92.053593993186950684 91.833906292915344238 91.61046910285949707 91.389374613761901855 91.158437728881835938 90.85828089714050293 90.50578010082244873 90.164531707763671875 89.820937871932983398 89.45234370231628418 89.003906488418579102 88.515624523162841797 88.02562403678894043 87.53562462329864502 87.045625805854797363 86.555625319480895996 86.01734316349029541 85.26609337329864502 84.43281245231628418 83.599530577659606934 82.766249775886535645 81.925625085830688477 81.154285567147397273
75.565180233546669797 75.506407856941223145 75.584377169609069824 78.436406731605529785 85.969219565391540527 99.145469188690185547 101.83843708038330078 101.56828129291534424 101.32828092575073242 101.11109447479248047 100.903281569480896 100.69499969482421875 100.48984348773956299 100.29609394073486328 100.1100006103515625 99.922031402587890625 99.729061365127563477 99.554374217987060547 99.397500276565551758 99.243751883506774902 99.092500567436218262 98.939998745918273926 98.794999003410339355 98.72515714168548584 98.719219803810119629 98.503438353538513184 95.387656569480895996 89.752813100814819336 84.229686856269836426 78.99656212329864502 73.789688229560852051 68.582969307899475098 63.162812411785125732 57.572812557220458984 51.646718502044677734 44.69843757152557373 39.960624873638153076 38.528905749320983887 37.213124930858612061 35.386718273162841797 36.469062089920043945 38.714219033718109131 43.572968959808349609 49.250468730926513672 53.829062819480895996 58.242343723773956299 62.683750271797180176 67.129687368869781494 71.622187256813049316 76.646406054496765137 81.758124232292175293 83.647656083106994629 82.973593473434448242 82.219843626022338867 81.736094236373901367 81.736250400543212891 81.918125271797180176 82.345781445503234863 83.153280496597290039 84.183905601501464844 85.328125953674316406 86.480000734329223633 87.63046729564666748 88.764218330383300781 89.67109382152557373 90.377967357635498047 91.020623207092285156 91.480625629425048828 91.653125882148742676 91.800155878067016602 91.942969322204589844 92.090157032012939453 92.235312223434448242 92.378437280654907227 92.520937323570251465 92.584062695503234863 92.581092953681945801 92.574999332427978516 92.568749785423278809 92.56125032901763916 92.550468921661376953 92.480937361717224121 92.365467667579650879 92.246249198913574219 92.127656459808349609 91.992187976837158203 91.810625791549682617 91.605782747268676758 91.38484501838684082 91.16203153133392334 90.93953096866607666 90.71593785285949707 90.475781440734863281 90.167655229568481445 89.830938339233398438 89.490156769752502441 89.149063348770141602 88.776406407356262207 88.31843721866607666 87.829376220703125 87.339375019073486328 86.849374175071716309 86.358750224113464355 85.772812843322753906 84.977186799049377441 84.143593192100524902 83.310155153274536133 82.467499613761901855 81.599843740463256836 80.807856968470986203
75.3000030517578125 75.3000030517578125 75.773126840591430664 78.871093869209289551 83.054376482963562012 96.117656946182250977 101.3479686975479126 101.09218811988830566 100.8085942268371582 100.54031276702880859 100.30437421798706055 100.09062504768371582 99.890313029289245605 99.705937623977661133 99.524375200271606445 99.347344875335693359 99.183594822883605957 99.041561722755432129 98.899374246597290039 98.75218665599822998 98.602500200271606445 98.451876044273376465 98.298592686653137207 98.177343130111694336 98.14593803882598877 98.104844093322753906 96.330313563346862793 91.061406731605529785 85.452812671661376953 80.269218564033508301 75.15437471866607666 70.025468587875366211 64.692812860012054443 59.27171856164932251 53.771406054496765137 47.415155768394470215 41.477812647819519043 39.127500176429748535 37.641718506813049316 35.642030835151672363 36.035937666893005371 38.022031784057617188 42.021405875682830811 47.866250395774841309 52.520781040191650391 56.82468724250793457 61.178749740123748779 65.531874537467956543 69.90999901294708252 74.664844155311584473 79.780625581741333008 82.852655529975891113 82.427187204360961914 81.695937156677246094 81.489531040191650391 81.573593974113464355 81.668437480926513672 81.815939068794250488 82.46484375 83.576717853546142578 84.730156898498535156 85.881094455718994141 87.033124089241027832 88.170155525207519531 89.072342276573181152 89.73249971866607666 90.360780954360961914 90.772343873977661133 90.94062507152557373 91.09296870231628418 91.24578249454498291 91.399842619895935059 91.560156106948852539 91.756251215934753418 91.956719636917114258 92.034844160079956055 92.053125381469726562 92.052812814712524414 92.048281431198120117 92.041094541549682617 92.032032012939453125 91.972186684608459473 91.859530329704284668 91.740468144416809082 91.623281359672546387 91.502813220024108887 91.356562137603759766 91.156718134880065918 90.935155034065246582 90.712499618530273438 90.490000486373901367 90.268124938011169434 90.04281151294708252 89.783281445503234863 89.482969522476196289 89.156719684600830078 88.81984412670135498 88.477188229560852051 88.093594193458557129 87.631718993186950684 87.14250028133392334 86.65250086784362793 86.15437471866607666 85.509219050407409668 84.689532279968261719 83.856094241142272949 83.011250615119934082 82.13656163215637207 81.25046849250793457 80.45785794939313007
75.3000030517578125 75.363596200942993164 76.393281936645507812 78.178593635559082031 80.372968435287475586 92.286249518394470215 100.50796842575073242 100.63781237602233887 100.34984421730041504 100.06171822547912598 99.774530768394470215 99.508906722068786621 99.310781002044677734 99.138125419616699219 98.965000152587890625 98.792499661445617676 98.625001311302185059 98.483594059944152832 98.361875295639038086 98.23781132698059082 98.103904366493225098 97.960313677787780762 97.809845089912414551 97.662343502044677734 97.582188010215759277 97.567500114440917969 96.953281760215759277 92.867032527923583984 87.07437598705291748 81.792188405990600586 76.740781545639038086 71.54796898365020752 66.171250581741333008 60.838280856609344482 55.523280680179595947 49.768281102180480957 43.430781900882720947 39.893125295639038086 38.053593873977661133 35.786250114440917969 35.685937345027923584 37.510937631130218506 40.701718747615814209 46.733437597751617432 51.428905963897705078 55.607031524181365967 59.910937488079071045 64.150936424732208252 68.332186341285705566 72.764063358306884766 77.744530797004699707 81.706405758857727051 81.967656373977661133 81.31312406063079834 81.128124594688415527 81.178593873977661133 81.267500042915344238 81.398906826972961426 81.878905534744262695 82.902343630790710449 84.063280582427978516 85.216562867164611816 86.367657184600830078 87.50375056266784668 88.399218916893005371 89.055937886238098145 89.696563482284545898 90.111250877380371094 90.282501935958862305 90.437499284744262695 90.594688296318054199 90.774062275886535645 91.002498269081115723 91.26703035831451416 91.424062728881835938 91.467031717300415039 91.498593926429748535 91.521094799041748047 91.524531960487365723 91.519531607627868652 91.511874914169311523 91.46562492847442627 91.353749632835388184 91.234530925750732422 91.116092801094055176 90.996718049049377441 90.874687552452087402 90.704999685287475586 90.486093521118164062 90.264374971389770508 90.041874885559082031 89.81999969482421875 89.596718072891235352 89.347655057907104492 89.068593263626098633 88.776249289512634277 88.473124861717224121 88.145156502723693848 87.801718950271606445 87.412500619888305664 86.944999814033508301 86.45562434196472168 85.943437457084655762 85.231718182563781738 84.399375557899475098 83.551405668258666992 82.676093697547912598 81.787500381469726562 80.899530529975891113 80.107677732195170961
75.3000030517578125 75.47828221321105957 76.416562080383300781 77.446250081062316895 78.921248555183410645 88.172500252723693848 99.35640716552734375 100.18265652656555176 99.891093850135803223 99.578281402587890625 99.235782027244567871 98.952812790870666504 98.761093497276306152 98.587499618530273438 98.414531946182250977 98.242499470710754395 98.070157051086425781 97.907188892364501953 97.778750300407409668 97.664062023162841797 97.547187328338623047 97.427812933921813965 97.301095008850097656 97.162344932556152344 97.040156960487365723 96.992499589920043945 96.863593339920043945 94.519063711166381836 88.940156340599060059 83.447344303131103516 78.351405978202819824 73.081562519073486328 67.81375044584274292 62.583749949932098389 57.221561908721923828 51.687656044960021973 45.660625159740447998 40.986874818801879883 38.597187161445617676 36.098594069480895996 35.482031583786010742 37.095625638961791992 39.645937561988830566 45.546405792236328125 50.432187497615814209 54.32593768835067749 58.448282182216644287 62.584218800067901611 66.724375665187835693 71.026407957077026367 75.864532470703125 80.36625063419342041 81.518906831741333008 80.975000500679016113 80.785780906677246094 80.737032413482666016 80.800312638282775879 80.992032170295715332 81.403124809265136719 82.201093435287475586 83.355937004089355469 84.526406645774841309 85.682656764984130859 86.818749427795410156 87.714061975479125977 88.37906181812286377 89.040781497955322266 89.461249351501464844 89.632969856262207031 89.798906803131103516 90.007189273834228516 90.265781998634338379 90.548437952995300293 90.781563282012939453 90.864531040191650391 90.897500514984130859 90.93000030517578125 90.962812304496765137 90.988436698913574219 90.996874809265136719 90.991094470024108887 90.955156087875366211 90.846250176429748535 90.728124499320983887 90.609999179840087891 90.490468144416809082 90.373125076293945312 90.232657670974731445 90.035156607627868652 89.815469980239868164 89.593906760215759277 89.370468258857727051 89.149374961853027344 88.906874775886535645 88.629842162132263184 88.344530224800109863 88.059530019760131836 87.770467400550842285 87.460467815399169922 87.127812623977661133 86.732187628746032715 86.259062528610229492 85.709687471389770508 84.94453132152557373 84.092187047004699707 83.21218717098236084 82.324999332427978516 81.4375 80.548125386238098145 79.757143156869076961
75.30357428959437982 75.575000643730163574 76.317189216613769531 77.166562914848327637 78.101091623306274414 84.354843378067016602 97.238281965255737305 99.704843759536743164 99.359686851501464844 98.979999542236328125 98.633749604225158691 98.401093482971191406 98.218905448913574219 98.040624141693115234 97.863749861717224121 97.692500472068786621 97.519999384880065918 97.348437786102294922 97.196563243865966797 97.075469255447387695 96.959999799728393555 96.84499967098236084 96.730000615119934082 96.61343848705291748 96.496249914169311523 96.419688224792480469 96.375156283378601074 95.464687466621398926 91.025468587875366211 85.397343754768371582 80.039844036102294922 74.816250443458557129 69.61812436580657959 64.324530601501464844 58.878593802452087402 53.391562461853027344 47.670312345027923584 42.471562385559082031 39.27109372615814209 36.481406688690185547 35.29828190803527832 36.775156974792480469 38.64468759298324585 44.026561975479125977 49.214218616485595703 53.10562509298324585 57.065156459808349609 61.074843943119049072 65.141876101493835449 69.328750371932983398 74.014999747276306152 78.73999941349029541 81.039218664169311523 80.719999551773071289 80.525937438011169434 80.388907432556152344 80.363906264305114746 80.618437290191650391 81.023437976837158203 81.585781097412109375 82.621562838554382324 83.80781245231628418 84.985000014305114746 86.132343173027038574 87.035155534744262695 87.72093808650970459 88.390624523162841797 88.815310835838317871 89.019218802452087402 89.259843945503234863 89.53703153133392334 89.81999969482421875 90.093593239784240723 90.252500176429748535 90.294999957084655762 90.327657103538513184 90.360469460487365723 90.393125057220458984 90.426718473434448242 90.455937027931213379 90.468123435974121094 90.442342877388000488 90.340468645095825195 90.223280668258666992 90.103749632835388184 89.984062075614929199 89.865936517715454102 89.738750100135803223 89.567968845367431641 89.364530444145202637 89.144842743873596191 88.923437833786010742 88.700469136238098145 88.464219570159912109 88.190157532691955566 87.906876325607299805 87.620626688003540039 87.33890688419342041 87.051250696182250977 86.761093735694885254 86.443281292915344238 86.044687867164611816 85.458905339241027832 84.631406188011169434 83.751718759536743164 82.862500667572021484 81.974999308586120605 81.087499618530273438 80.198124885559082031 79.40714263916015625
75.593394688197548703 75.638126730918884277 76.40672004222869873 77.21312403678894043 78.865623831748962402 83.404998779296875 94.927811741828918457 99.092344522476196289 98.722969412803649902 98.34546816349029541 98.0625 97.856562137603759766 97.672967910766601562 97.49703061580657959 97.320000767707824707 97.143125414848327637 96.968593955039978027 96.797343611717224121 96.628125429153442383 96.488907098770141602 96.372186899185180664 96.257812023162841797 96.142187714576721191 96.027812719345092773 95.922343730926513672 95.854844331741333008 95.802187442779541016 95.577812910079956055 92.818125605583190918 87.442031383514404297 81.981563091278076172 76.655938386917114258 71.411561250686645508 66.047342598438262939 60.695937573909759521 55.40453040599822998 49.74828106164932251 43.911718785762786865 39.899062097072601318 36.932813107967376709 35.179062902927398682 36.613125264644622803 37.94703143835067749 42.504999935626983643 47.963906347751617432 52.005155980587005615 55.94515615701675415 59.885937273502349854 63.83546912670135498 67.847343921661376953 72.327031135559082031 77.150781035423278809 80.473749637603759766 80.653749465942382812 80.425469636917114258 80.155313730239868164 79.919531464576721191 80.204530596733093262 80.660781741142272949 81.108748435974121094 81.909530878067016602 83.066875338554382324 84.25468742847442627 85.423282027244567871 86.369219779968261719 87.073125004768371582 87.747968077659606934 88.230780720710754395 88.525155901908874512 88.808905243873596191 89.091093778610229492 89.375936746597290039 89.609061360359191895 89.691405296325683594 89.724998831748962402 89.758125543594360352 89.79187619686126709 89.823594212532043457 89.85703122615814209 89.8899993896484375 89.92171776294708252 89.92296910285949707 89.83359372615814209 89.715468645095825195 89.596250176429748535 89.476717948913574219 89.359530329704284668 89.237655878067016602 89.084062933921813965 88.897656917572021484 88.693125128746032715 88.474843144416809082 88.252030253410339355 88.022031188011169434 87.75109398365020752 87.469376087188720703 87.183125972747802734 86.899845242500305176 86.615001678466796875 86.330157637596130371 86.042658090591430664 85.708594918251037598 85.146094202995300293 84.302655935287475586 83.410624265670776367 82.519374370574951172 81.629062175750732422 80.74078214168548584 79.849532008171081543 79.055713653564453125
76.872501918247763797 75.656095385551452637 76.389843225479125977 77.471717596054077148 80.664373993873596191 83.782811999320983887 91.927499890327453613 98.154375910758972168 98.077188014984130859 97.743281006813049316 97.514999747276306152 97.314374566078186035 97.129999160766601562 96.951092958450317383 96.776406645774841309 96.599375605583190918 96.421093940734863281 96.247030973434448242 96.073281288146972656 95.912499308586120605 95.785312294960021973 95.670000314712524414 95.554999947547912598 95.441562771797180176 95.354843974113464355 95.296561717987060547 95.243437290191650391 95.172342300415039062 93.960624575614929199 89.507812261581420898 84.069843411445617676 78.635312795639038086 73.319843530654907227 68.086093306541442871 62.884530961513519287 57.603437483310699463 51.967031717300415039 45.701563000679016113 40.581406235694885254 37.457187354564666748 35.245937883853912354 36.561874866485595703 37.625000357627868652 40.989375531673431396 46.624374449253082275 50.863281667232513428 54.817968904972076416 58.772344350814819336 62.722344934940338135 66.679688870906829834 70.91015625 75.504842996597290039 79.539374828338623047 80.457188248634338379 80.056406140327453613 79.580469489097595215 79.218750596046447754 79.558905959129333496 80.153593659400939941 80.68187403678894043 81.287031292915344238 82.325624465942382812 83.505468845367431641 84.671250700950622559 85.699686527252197266 86.439530611038208008 87.114531159400939941 87.647186994552612305 88.042969703674316406 88.361406803131103516 88.648438572883605957 88.920937895774841309 89.078281164169311523 89.121874332427978516 89.154998779296875 89.188124656677246094 89.222499847412109375 89.256406784057617188 89.291875839233398438 89.32781219482421875 89.362655997276306152 89.368437647819519043 89.308594346046447754 89.205469250679016113 89.090000152587890625 88.969999790191650391 88.851874232292175293 88.733593463897705078 88.596093535423278809 88.415937542915344238 88.226094484329223633 88.022656798362731934 87.804375171661376953 87.578125476837158203 87.312498927116394043 87.029998898506164551 86.745467782020568848 86.460155367851257324 86.175937652587890625 85.866562843322753906 85.507500410079956055 85.087656021118164062 84.619218826293945312 83.987967848777770996 83.152812361717224121 82.25578153133392334 81.354218363761901855 80.455469369888305664 79.554375529289245605 78.751072066170834773
77.218215533665244266 75.814689397811889648 76.692031383514404297 77.74984288215637207 80.907968878746032715 83.675156116485595703 89.017655849456787109 96.96171879768371582 97.447812080383300781 97.180312275886535645 96.971875190734863281 96.769843459129333496 96.588906168937683105 96.410000205039978027 96.230626106262207031 96.053594827651977539 95.878905892372131348 95.70062410831451416 95.523749709129333496 95.352968454360961914 95.202031254768371582 95.082031369209289551 94.967343330383300781 94.862343549728393555 94.794686317443847656 94.738124370574951172 94.660311102867126465 94.52843630313873291 94.151717662811279297 91.451719164848327637 86.261719107627868652 80.745937347412109375 75.453750014305114746 70.328281521797180176 65.137812435626983643 59.777499854564666748 53.99640655517578125 47.408593177795410156 41.36531221866607666 38.000156283378601074 35.48328167200088501 36.519530713558197021 37.44312518835067749 39.612969100475311279 45.058594167232513428 49.683125495910644531 53.641406416893005371 57.578906118869781494 61.509843945503234863 65.481094241142272949 69.486093759536743164 73.837187647819519043 78.295469403266906738 79.892188429832458496 79.363593101501464844 78.813281059265136719 78.461875557899475098 78.80812537670135498 79.426249504089355469 80.037968039512634277 80.65890657901763916 81.576563000679016113 82.726561784744262695 83.885469794273376465 84.990780234336853027 85.806875467300415039 86.472031950950622559 86.987343430519104004 87.436093688011169434 87.854842424392700195 88.193437099456787109 88.43625032901763916 88.520156383514404297 88.554687261581420898 88.590937376022338867 88.62734377384185791 88.666092753410339355 88.705156087875366211 88.744844555854797363 88.779375672340393066 88.793281435966491699 88.781406402587890625 88.742658257484436035 88.667814493179321289 88.574688076972961426 88.463437795639038086 88.34453117847442627 88.226093173027038574 88.099375367164611816 87.931875348091125488 87.744063377380371094 87.554062724113464355 87.351250648498535156 87.132032394409179688 86.874062776565551758 86.590156435966491699 86.307030081748962402 86.001717567443847656 85.647500157356262207 85.232656717300415039 84.788123965263366699 84.338125824928283691 83.88953101634979248 83.426717877388000488 82.844686388969421387 82.03953087329864502 81.140624642372131348 80.240000247955322266 79.337500691413879395 78.531429699489052609
76.158036640712197141 75.870782375335693359 77.092188835144042969 77.867811799049377441 80.385468840599060059 83.73484349250793457 87.130625247955322266 95.095001697540283203 96.855625629425048828 96.634999752044677734 96.428124904632568359 96.226406455039978027 96.042968392372131348 95.86703181266784668 95.689844369888305664 95.510156512260437012 95.332968592643737793 95.157030820846557617 94.980000972747802734 94.802969694137573242 94.633593082427978516 94.495936870574951172 94.380000591278076172 94.294374704360961914 94.224531173706054688 94.117187380790710449 93.953905701637268066 93.774218440055847168 93.570467948913574219 92.54968714714050293 88.404688715934753418 82.789687514305114746 77.553280949592590332 72.57953190803527832 67.394688069820404053 61.666561722755432129 55.209999799728393555 48.588593900203704834 42.370312392711639404 38.570469021797180176 35.7189064621925354 36.301093459129333496 37.348281323909759521 38.727500617504119873 43.397031545639038086 48.387031078338623047 52.392187714576721191 56.306406319141387939 60.272812128067016602 64.289375126361846924 68.31109309196472168 72.511249780654907227 76.912969470024108887 79.418281316757202148 78.939218759536743164 78.21109306812286377 77.794375777244567871 77.999376177787780762 78.588750243186950684 79.201718568801879883 79.862031459808349609 80.795625090599060059 81.940623879432678223 83.09812629222869873 84.240624547004699707 85.16312563419342041 85.822500348091125488 86.317500472068786621 86.769531607627868652 87.222031354904174805 87.654219150543212891 87.905000090599060059 87.965936660766601562 88.005155444145202637 88.045000076293945312 88.085000872611999512 88.125 88.164842844009399414 88.198905706405639648 88.209999322891235352 88.202968597412109375 88.190000295639038086 88.162345290184020996 88.097814321517944336 88.021719694137573242 87.936406493186950684 87.833124518394470215 87.719374656677246094 87.598125338554382324 87.445469021797180176 87.259999990463256836 87.072031736373901367 86.88265681266784668 86.679843425750732422 86.434845089912414551 86.134376645088195801 85.788125991821289062 85.376875162124633789 84.933594703674316406 84.485000252723693848 84.034999847412109375 83.58640742301940918 83.137030482292175293 82.687656164169311523 82.233281493186950684 81.687655448913574219 80.91828155517578125 80.029999971389770508 79.127969026565551758 78.320535932268413148
74.891607557024272523 75.58937537670135498 76.699845314025878906 77.459531664848327637 78.48296809196472168 80.162655472755432129 83.723124027252197266 93.075623989105224609 96.296718001365661621 96.091875076293945312 95.884999752044677734 95.684374570846557617 95.5 95.321094751358032227 95.146407008171081543 94.969374299049377441 94.789999008178710938 94.611093044281005859 94.436406493186950684 94.259375214576721191 94.0814056396484375 93.91828000545501709 93.796875119209289551 93.695781230926513672 93.55218815803527832 93.376718640327453613 93.196717977523803711 93.019531130790710449 92.813280344009399414 92.433436870574951172 90.168749570846557617 84.949061870574951172 79.789375185966491699 74.950937986373901367 69.842812955379486084 63.877968072891235352 57.150313079357147217 50.397187888622283936 43.892812371253967285 39.410780727863311768 36.020624756813049316 35.958906292915344238 37.189062654972076416 37.935156524181365967 41.303125143051147461 46.744375109672546387 51.090000450611114502 55.046250224113464355 59.024531006813049316 63.016249001026153564 67.057655811309814453 71.019062399864196777 75.175312280654907227 78.324688076972961426 78.600312590599060059 77.890937328338623047 77.388750553131103516 77.241094470024108887 77.715937376022338867 78.354375243186950684 79.043750286102294922 80.008123874664306641 81.155467629432678223 82.312032461166381836 83.466874003410339355 84.494842767715454102 85.172031998634338379 85.647655963897705078 86.103593707084655762 86.572812914848327637 87.040155768394470215 87.31499791145324707 87.415311932563781738 87.464842677116394043 87.504999160766601562 87.545000076293945312 87.584844589233398438 87.618905544281005859 87.629999637603759766 87.622499823570251465 87.61156308650970459 87.596406698226928711 87.576407432556152344 87.523282408714294434 87.448437929153442383 87.373437166213989258 87.294686555862426758 87.20374906063079834 87.093125224113464355 86.956094145774841309 86.775937676429748535 86.587969541549682617 86.399844527244567871 86.20968782901763916 85.956563830375671387 85.555312275886535645 85.10437476634979248 84.649219632148742676 84.197656989097595215 83.745000243186950684 83.292500615119934082 82.840469121932983398 82.388593435287475586 81.937343597412109375 81.485156416893005371 81.034061551094055176 80.517500638961791992 79.796874880790710449 78.916405439376831055 78.09017876216343268
74.510892186846049867 74.944688320159912109 75.516562700271606445 75.926719069480895996 76.304529905319213867 76.824373722076416016 80.399998188018798828 90.872657179832458496 95.587812542915344238 95.546561837196350098 95.341406583786010742 95.139844059944152832 94.958907008171081543 94.780000686645507812 94.600625395774841309 94.423593044281005859 94.24890601634979248 94.070000767707824707 93.890625953674316406 93.713593602180480957 93.537655353546142578 93.35656130313873291 93.180311918258666992 92.995936751365661621 92.809375286102294922 92.624687790870666504 92.444530844688415527 92.266094326972961426 92.049687862396240234 91.744061708450317383 90.966249346733093262 87.407343745231628418 82.369843244552612305 77.485468864440917969 72.415937900543212891 66.389532029628753662 59.665156185626983643 52.932187497615814209 46.32343745231628418 40.782499909400939941 36.67281186580657959 35.548593103885650635 36.91968691349029541 37.466874837875366211 39.29468768835067749 44.524687409400939941 49.622188270092010498 53.681562721729278564 57.652656078338623047 61.708749532699584961 65.753750145435333252 69.492343902587890625 73.066562175750732422 76.233124375343322754 77.916718006134033203 77.63171839714050293 77.118750095367431641 76.673906683921813965 76.916094064712524414 77.552499771118164062 78.238437891006469727 79.220936417579650879 80.37390601634979248 81.526719808578491211 82.682498335838317871 83.784218311309814453 84.51437532901763916 84.990311861038208008 85.470156550407409668 85.965156435966491699 86.433125019073486328 86.681561589241027832 86.819685220718383789 86.915311932563781738 86.964842677116394043 87.004842996597290039 87.037969708442687988 87.047968745231628418 87.042344331741333008 87.031562447547912598 87.018282413482666016 87.003594517707824707 86.987030267715454102 86.946875214576721191 86.874531149864196777 86.798592686653137207 86.724060773849487305 86.648122549057006836 86.565000057220458984 86.455469846725463867 86.290469527244567871 86.099530935287475586 85.902656793594360352 85.702187418937683105 85.452655911445617676 85.045155167579650879 84.576405882835388184 84.106406331062316895 83.637969493865966797 83.169844269752502441 82.701875090599060059 82.232968807220458984 81.764999866485595703 81.297031044960021973 80.830468535423278809 80.36999976634979248 79.908906340599060059 79.397969245910644531 78.611405611038208008 77.745356695992612117
74.435892105102539062 74.403125643730163574 74.441094160079956055 74.494844198226928711 74.632969021797180176 74.827499508857727051 76.739687323570251465 86.81453096866607666 94.491248846054077148 94.966874599456787109 94.795625090599060059 94.59593808650970459 94.412969231605529785 94.237031102180480957 94.059843182563781738 93.880155444145202637 93.702812075614929199 93.525156378746032715 93.342656970024108887 93.158749938011169434 92.974217891693115234 92.785937190055847168 92.590000152587890625 92.36749875545501709 92.144844293594360352 91.927344560623168945 91.723280072212219238 91.525625467300415039 91.293125033378601074 90.979374408721923828 90.633594274520874023 89.09984290599822998 84.798122882843017578 79.996405720710754395 74.942031502723693848 68.908594369888305664 62.246562540531158447 55.627812504768371582 49.045156180858612061 42.801093578338623047 38.129843592643737793 35.412342965602874756 36.267499208450317383 37.142811834812164307 37.967187106609344482 41.676406264305114746 47.282499969005584717 52.027031481266021729 56.124844193458557129 60.14203113317489624 64.032187104225158691 67.670624732971191406 71.203594088554382324 74.303905725479125977 76.555312871932983398 77.136875391006469727 76.601875543594360352 76.068594694137573242 76.317500472068786621 76.918750166893005371 77.554375171661376953 78.462812900543212891 79.601719021797180176 80.754844307899475098 81.906874179840087891 83.038437604904174805 83.862031817436218262 84.375781059265136719 84.873438000679016113 85.369999885559082031 85.813123941421508789 86.035938024520874023 86.181561827659606934 86.319685220718383789 86.415155649185180664 86.457812309265136719 86.46593785285949707 86.457655668258666992 86.450000405311584473 86.439687728881835938 86.42499995231628418 86.409999847412109375 86.39499974250793457 86.366874456405639648 86.301405787467956543 86.225467324256896973 86.149997830390930176 86.074530243873596191 85.998594522476196289 85.91890716552734375 85.782188057899475098 85.584843277931213379 85.381093502044677734 85.17890632152557373 84.944843769073486328 84.596248745918273926 84.142343282699584961 83.670469522476196289 83.200000643730163574 82.729531168937683105 82.257656455039978027 81.78703153133392334 81.316405534744262695 80.844999313354492188 80.375 79.90343785285949707 79.432344198226928711 78.897031545639038086 78.09468686580657959 77.231785637991762883
74.385713985988076047 74.371094346046447754 74.36078190803527832 74.3600006103515625 74.3600006103515625 74.3600006103515625 74.879688024520874023 82.706093311309814453 93.001093506813049316 94.292188167572021484 94.224844217300415039 94.052344679832458496 93.870000839233398438 93.690937519073486328 93.514686107635498047 93.332499146461486816 93.147187352180480957 92.960312008857727051 92.77296900749206543 92.58453071117401123 92.394999384880065918 92.20953071117401123 92.020313143730163574 91.802031040191650391 91.574061989784240723 91.345938444137573242 91.118436217308044434 90.890624523162841797 90.632498979568481445 90.328280925750732422 90.013281345367431641 89.449219822883605957 86.793749451637268066 82.175312519073486328 77.229531168937683105 71.520154833793640137 65.129061877727508545 58.610468149185180664 52.054999768733978271 45.537656247615814209 40.088124990463256836 36.505312204360961914 35.404999613761901855 36.672031164169311523 37.364999771118164062 39.313905775547027588 44.462031304836273193 49.606250286102294922 53.916093826293945312 58.130781352519989014 62.126093924045562744 65.793282568454742432 69.407968878746032715 72.466561198234558105 74.72390592098236084 76.195468902587890625 76.018281698226928711 75.49156343936920166 75.750937461853027344 76.337812066078186035 76.977343440055847168 77.762344479560852051 78.847656130790710449 80 81.152187705039978027 82.290624499320983887 83.21890568733215332 83.78000032901763916 84.278126239776611328 84.775469422340393066 85.19312584400177002 85.39156186580657959 85.535938024520874023 85.682186603546142578 85.820154428482055664 85.882187128067016602 85.877500176429748535 85.867499947547912598 85.857656717300415039 85.847343325614929199 85.832188129425048828 85.817812085151672363 85.802187204360961914 85.783280849456787109 85.726248741149902344 85.651560664176940918 85.575936436653137207 85.501405477523803711 85.425469756126403809 85.34687650203704834 85.23953092098236084 85.059843659400939941 84.85703122615814209 84.652968645095825195 84.425780892372131348 84.119374275207519531 83.705625176429748535 83.237031817436218262 82.76640629768371582 82.295000076293945312 81.823593854904174805 81.352968215942382812 80.88234412670135498 80.411875247955322266 79.940468430519104004 79.46953129768371582 78.991249442100524902 78.359530925750732422 77.509374260902404785 76.691607611519955867
74.352499553135459109 74.392812728881835938 74.37015688419342041 74.3600006103515625 74.3600006103515625 74.3600006103515625 74.444062948226928711 79.421562314033508301 90.754375815391540527 93.58937525749206543 93.581094026565551758 93.497344851493835449 93.322188138961791992 93.137030839920043945 92.94921875 92.760156869888305664 92.571562528610229492 92.384531974792480469 92.195000052452087402 92.004999637603759766 91.815625905990600586 91.633125066757202148 91.451406717300415039 91.237813353538513184 91.009998798370361328 90.782031893730163574 90.55390632152557373 90.314530611038208008 90.047968864440917969 89.763593673706054688 89.450468301773071289 89.047813177108764648 87.921874642372131348 84.163124680519104004 79.249999046325683594 73.747343301773071289 67.855468451976776123 61.785156190395355225 55.505624771118164062 49.012812554836273193 42.495468974113464355 38.242656230926513672 35.601874828338623047 35.868594229221343994 37.008750259876251221 37.927499771118164062 41.661562919616699219 46.899374902248382568 51.348750174045562744 55.734218835830688477 60.140469372272491455 63.950625956058502197 67.528906643390655518 70.866094112396240234 73.225313186645507812 74.74796903133392334 75.495000243186950684 75.225000262260437012 75.197968125343322754 75.772812247276306152 76.429531455039978027 77.127812862396240234 78.103437304496765137 79.248124599456787109 80.399062752723693848 81.527656197547912598 82.533280849456787109 83.170624494552612305 83.683125972747802734 84.181406974792480469 84.573126673698425293 84.746095776557922363 84.893749117851257324 85.046562552452087402 85.19515681266784668 85.280782341957092285 85.287500262260437012 85.277499079704284668 85.26734471321105957 85.254531502723693848 85.238592386245727539 85.224530816078186035 85.208593249320983887 85.193593263626098633 85.151248455047607422 85.077810406684875488 85.002186298370361328 84.92781221866607666 84.852033495903015137 84.770313024520874023 84.679686188697814941 84.533125042915344238 84.331094503402709961 84.128906011581420898 83.90546882152557373 83.614375472068786621 83.256407499313354492 82.802968740463256836 82.332343220710754395 81.860468387603759766 81.390000462532043457 80.919532179832458496 80.448125243186950684 79.977655768394470215 79.506562471389770508 79.034999847412109375 78.522968053817749023 77.774843692779541016 76.906562447547912598 76.118750980922158078
74.320356369018554688 74.412031054496765137 74.393125534057617188 74.3600006103515625 74.3600006103515625 74.364063143730163574 74.486875772476196289 77.384843707084655762 88.430625677108764648 93.049219489097595215 93.06203162670135498 92.967658281326293945 92.760624885559082031 92.561094045639038086 92.371093392372131348 92.182968616485595703 91.994531512260437012 91.804999947547912598 91.615468025207519531 91.42703092098236084 91.239999651908874512 91.059531807899475098 90.87906336784362793 90.671563267707824707 90.44499969482421875 90.217342972755432129 89.98609459400177002 89.733749270439147949 89.461718201637268066 89.187187552452087402 88.890312910079956055 88.539687156677246094 88.109218001365661621 85.902968525886535645 81.1953125 75.604999542236328125 69.784999847412109375 63.964218616485595703 58.113750219345092773 52.111719250679016113 45.376718819141387939 39.847343564033508301 36.849531352519989014 35.270781397819519043 36.46234363317489624 37.227812290191650391 39.157656252384185791 44.01406174898147583 48.810468554496765137 53.352968394756317139 57.950937509536743164 62.156405985355377197 65.765156447887420654 69.224843978881835938 71.747656941413879395 73.211405754089355469 74.410780429840087891 74.830468535423278809 74.733906865119934082 75.212031364440917969 75.881407022476196289 76.54765629768371582 77.385468125343322754 78.497343182563781738 79.637187838554382324 80.756093382835388184 81.82624971866607666 82.544217705726623535 83.072656631469726562 83.578906655311584473 83.940157890319824219 84.107657432556152344 84.262030839920043945 84.419532299041748047 84.564688444137573242 84.665312290191650391 84.695468664169311523 84.687343478202819824 84.67499995231628418 84.661405324935913086 84.645468235015869141 84.631405949592590332 84.615468382835388184 84.601562380790710449 84.571561217308044434 84.50452876091003418 84.428593039512634277 84.353907465934753418 84.275001406669616699 84.19343721866607666 84.106250524520874023 83.993906736373901367 83.808437108993530273 83.603437066078186035 83.382655858993530273 83.096250414848327637 82.777344226837158203 82.366875052452087402 81.897656917572021484 81.427031278610229492 80.956406474113464355 80.485000252723693848 80.014999747276306152 79.54343724250793457 79.072343587875366211 78.598749279975891113 78.004062771797180176 77.172813177108764648 76.300000786781311035 75.520893233163022273
74.29517854963030743 74.419999241828918457 74.43500053882598877 74.363750696182250977 74.36937558650970459 74.491719841957092285 74.946407675743103027 76.464843630790710449 85.714687943458557129 92.345467925071716309 92.632031440734863281 92.467969655990600586 92.230938196182250977 92.001719236373901367 91.796718001365661621 91.605000615119934082 91.415000438690185547 91.225468158721923828 91.038437724113464355 90.849999904632568359 90.662812471389770508 90.4850006103515625 90.307188272476196289 90.105937838554382324 89.880000948905944824 89.65187370777130127 89.413593649864196777 89.148281693458557129 88.875156164169311523 88.609531164169311523 88.357656478881835938 88.072186827659606934 87.761563420295715332 86.872187972068786621 83.09656226634979248 77.451406121253967285 71.653750777244567871 65.858750581741333008 60.0546875 54.253593862056732178 48.159063041210174561 41.904218673706054688 38.158281087875366211 35.785937845706939697 35.637813210487365723 36.80218803882598877 37.623281657695770264 41.173594117164611816 46.397344052791595459 51.048749744892120361 55.633281230926513672 60.150937378406524658 64.070937812328338623 67.593751072883605957 70.46500086784362793 72.06203162670135498 73.08468782901763916 73.854375720024108887 74.172812819480895996 74.594374537467956543 75.292343378067016602 75.981717944145202637 76.720467448234558105 77.743748784065246582 78.869686365127563477 79.990000009536743164 81.086405277252197266 81.880155563354492188 82.420937776565551758 82.930001020431518555 83.281874775886535645 83.47249901294708252 83.635625004768371582 83.794844150543212891 83.935312628746032715 84.034531116485595703 84.094374537467956543 84.095936775207519531 84.082188129425048828 84.067812085151672363 84.052187204360961914 84.037812232971191406 84.022187232971191406 84.008281946182250977 83.987811446189880371 83.931091547012329102 83.855469942092895508 83.779533624649047852 83.697500228881835938 83.614842534065246582 83.52953183650970459 83.436874866485595703 83.279842972755432129 83.079531669616699219 82.862031340599060059 82.57671821117401123 82.268750667572021484 81.914688467979431152 81.463593602180480957 80.99296867847442627 80.522344231605529785 80.051874756813049316 79.580467820167541504 79.10953068733215332 78.638125061988830566 78.14437556266784668 77.43312525749206543 76.566718459129333496 75.693436861038208008 74.915713855198447391
74.26321479252406732 74.411874055862426758 74.486093640327453613 74.419375061988830566 74.551250100135803223 74.903594613075256348 75.452970147132873535 76.343906641006469727 83.11687469482421875 91.50953066349029541 92.174216985702514648 91.963906288146972656 91.721876144409179688 91.480313420295715332 91.24531257152557373 91.030313372611999512 90.837187409400939941 90.648906111717224121 90.459843158721923828 90.271093606948852539 90.08906245231628418 89.910468697547912598 89.732968926429748535 89.539061546325683594 89.315001249313354492 89.085468769073486328 88.833595156669616699 88.562031865119934082 88.299218416213989258 88.06828010082244873 87.847030043601989746 87.574998259544372559 87.28000187873840332 86.914376020431518555 84.722968935966491699 79.403906941413879395 73.536875486373901367 67.622031867504119873 61.686562538146972656 56.144531488418579102 50.824843168258666992 44.682187378406524658 39.465781629085540771 37.016406714916229248 35.314063370227813721 36.152031660079956055 36.954374611377716064 38.905312657356262207 44.263125061988830566 49.138124525547027588 53.497343182563781738 57.961562216281890869 62.252968847751617432 65.96874922513961792 69.007967829704284668 70.814062714576721191 71.786875486373901367 72.49015653133392334 73.133436441421508789 73.877343535423278809 74.618749380111694336 75.327654480934143066 76.050312399864196777 77.005467891693115234 78.141405463218688965 79.269845247268676758 80.30390632152557373 81.112500190734863281 81.669062495231628418 82.118906497955322266 82.450624465942382812 82.735311985015869141 82.976719021797180176 83.166719317436218262 83.303281307220458984 83.401561975479125977 83.482812047004699707 83.502031087875366211 83.488592386245727539 83.474999666213989258 83.459999799728393555 83.44499969482421875 83.429999947547912598 83.414999842643737793 83.398281693458557129 83.35359489917755127 83.281565308570861816 83.204845547676086426 83.120468258857727051 83.035157203674316406 82.951876044273376465 82.864530324935913086 82.745625138282775879 82.55359339714050293 82.339218616485595703 82.059530735015869141 81.750468850135803223 81.432500004768371582 81.02734375 80.559531569480895996 80.088124752044677734 79.61765587329864502 79.146562933921813965 78.674999594688415527 78.204062461853027344 77.642186641693115234 76.833280444145202637 75.959999203681945801 75.087655544281005859 74.310177666800356633
75.808929170881000914 75.442031025886535645 75.140313148498535156 74.941404938697814941 75.052968144416809082 75.443125009536743164 76.16156303882598877 76.687499523162841797 81.122656106948852539 90.409531474113464355 91.688593149185180664 91.454999208450317383 91.214375138282775879 90.973282694816589355 90.730469822883605957 90.492187619209289551 90.270624876022338867 90.070937275886535645 89.880156040191650391 89.69234311580657959 89.513125061988830566 89.336874485015869141 89.159530997276306152 88.97031104564666748 88.749843716621398926 88.513125181198120117 88.249374866485595703 87.990314006805419922 87.764375567436218262 87.55687415599822998 87.339998841285705566 87.070468664169311523 86.777189373970031738 86.48031318187713623 85.518280625343322754 81.020311594009399414 74.894687056541442871 68.896405994892120361 63.2610931396484375 57.892655670642852783 52.400937199592590332 46.679844141006469727 41.08156275749206543 38.025625169277191162 36.149687707424163818 35.336563169956207275 36.48874962329864502 37.423749864101409912 41.799062430858612061 47.321093380451202393 51.704843759536743164 55.988124608993530273 60.274531364440917969 64.142187952995300293 67.163281440734863281 69.261717677116394043 70.289062738418579102 70.818281650543212891 71.554687261581420898 72.336249351501464844 73.513592958450317383 74.495781779289245605 75.239843368530273438 76.256875276565551758 77.420624017715454102 78.488593935966491699 79.438749909400939941 80.289375185966491699 80.849686861038208008 81.206562042236328125 81.519061684608459473 81.832501053810119629 82.153126239776611328 82.450467824935913086 82.64640498161315918 82.756093263626098633 82.849687337875366211 82.895624876022338867 82.889999985694885254 82.879687070846557617 82.866249799728393555 82.851718664169311523 82.836406707763671875 82.821719169616699219 82.806250691413879395 82.775002002716064453 82.707189798355102539 82.625625133514404297 82.543436288833618164 82.456563711166381836 82.373906373977661133 82.286719679832458496 82.192188382148742676 82.028437256813049316 81.818125486373901367 81.539999723434448242 81.233281135559082031 80.924375295639038086 80.573280811309814453 80.125 79.655000686645507812 79.18343818187713623 78.712343335151672363 78.24187469482421875 77.756094098091125488 77.085156440734863281 76.226719379425048828 75.354843735694885254 74.482812643051147461 73.703571864536826297
80.356072017124716922 79.484375119209289551 78.547031521797180176 77.753905534744262695 77.366718173027038574 77.876719474792480469 79.604999780654907227 81.803593754768371582 85.69546973705291748 90.768125414848327637 91.191873788833618164 90.947655677795410156 90.707499265670776367 90.466719269752502441 90.225157618522644043 89.982500076293945312 89.74093782901763916 89.511249303817749023 89.305155634880065918 89.118905544281005859 88.939530849456787109 88.761562228202819824 88.58499908447265625 88.402342915534973145 88.184061169624328613 87.935312628746032715 87.684217214584350586 87.462968349456787109 87.253125667572021484 87.04687654972076416 86.832032442092895508 86.566251277923583984 86.27125096321105957 85.930469036102294922 85.258436918258666992 81.833904147148132324 75.937810659408569336 70.200312972068786621 64.698906064033508301 59.163124799728393555 53.549999892711639404 47.940468370914459229 42.636406004428863525 38.934531152248382568 37.169375121593475342 35.542031764984130859 35.685937762260437012 36.655937671661376953 38.968124866485595703 44.767968952655792236 49.620937824249267578 53.887656629085540771 58.085937857627868652 61.86921924352645874 65.050469040870666504 67.183125495910644531 68.143281221389770508 68.613751053810119629 68.955468893051147461 69.499686956405639648 71.11046910285949707 73.080625176429748535 74.347343325614929199 75.417812228202819824 76.453124761581420898 77.45296776294708252 78.439062714576721191 79.400000572204589844 80.00390625 80.349062204360961914 80.688280820846557617 81.027657508850097656 81.360782027244567871 81.655000090599060059 81.899061799049377441 82.064530849456787109 82.165156245231628418 82.21281278133392334 82.223751187324523926 82.234217643737792969 82.239843845367431641 82.237812995910644531 82.233749151229858398 82.224062919616699219 82.21312558650970459 82.191720128059387207 82.133126735687255859 82.048123955726623535 81.964842796325683594 81.879531741142272949 81.794842123985290527 81.709530949592590332 81.623281359672546387 81.495468735694885254 81.294375777244567871 81.020468950271606445 80.713906168937683105 80.406093120574951172 80.089999794960021973 79.688124775886535645 79.220468997955322266 78.749531149864196777 78.278124451637268066 77.807656168937683105 77.273749947547912598 76.492344260215759277 75.620469331741333008 74.74953150749206543 73.876718997955322266 73.098392895289833859
84.381427219935829953 84.029531478881835938 84.100312948226928711 84.33484339714050293 85.398124575614929199 87.361563563346862793 89.320937395095825195 90.502654910087585449 90.95734405517578125 90.939376473426818848 90.708281040191650391 90.463437318801879883 90.22015678882598877 89.977656841278076172 89.732344746589660645 89.488280892372131348 89.242343544960021973 89.001718878746032715 88.774687647819519043 88.574218034744262695 88.379530668258666992 88.195937156677246094 88.012656450271606445 87.830468893051147461 87.616250038146972656 87.376719236373901367 87.160312414169311523 86.952498435974121094 86.743123888969421387 86.536875247955322266 86.323126316070556641 86.060001492500305176 85.73749995231628418 85.263749480247497559 84.593749165534973145 82.011561751365661621 76.58703148365020752 71.250782012939453125 65.869688034057617188 60.339531064033508301 54.830624818801879883 49.542344093322753906 44.728749752044677734 40.381406545639038086 37.889687538146972656 36.529844224452972412 35.246719896793365479 36.025313079357147217 37.081875324249267578 41.461874842643737793 47.172343432903289795 51.517031490802764893 55.468906164169311523 59.012656629085540771 62.210156023502349854 64.248906552791595459 65.019374251365661621 65.387031018733978271 65.685312330722808838 66.312656879425048828 67.895468950271606445 70.339845061302185059 72.642500400543212891 74.249531149864196777 75.292500019073486328 76.29984283447265625 77.328125834465026855 78.453125596046447754 79.237968206405639648 79.608280539512634277 79.947656869888305664 80.277812838554382324 80.57718813419342041 80.839843869209289551 81.094061732292175293 81.32390594482421875 81.456406474113464355 81.49390566349029541 81.506250500679016113 81.520623087882995605 81.535156011581420898 81.547501206398010254 81.558906435966491699 81.57078099250793457 81.582656502723693848 81.591094493865966797 81.556875705718994141 81.471249580383300781 81.385157465934753418 81.301874756813049316 81.215624094009399414 81.13187563419342041 81.045623421669006348 80.948436379432678223 80.770936727523803711 80.502655863761901855 80.195000052452087402 79.886718630790710449 79.579375147819519043 79.232500553131103516 78.786562681198120117 78.314998984336853027 77.844999313354492188 77.367030858993530273 76.736249804496765137 75.886718153953552246 75.014999508857727051 74.143749713897705078 73.280780196189880371 72.545534815107075133
90.561070442199707031 90.821092486381530762 91.289686679840087891 91.366874456405639648 91.393905997276306152 91.379845023155212402 91.13781273365020752 90.899062871932983398 90.674999713897705078 90.45374906063079834 90.228125452995300293 89.988906502723693848 89.743437886238098145 89.5 89.256562113761901855 89.011249661445617676 88.77374875545501709 88.558437943458557129 88.371407032012939453 88.178124904632568359 87.959218978881835938 87.738593697547912598 87.522969603538513184 87.314218521118164062 87.09593808650970459 86.870625853538513184 86.656407594680786133 86.445000767707824707 86.234687447547912598 86.027342081069946289 85.813749313354492188 85.537031650543212891 85.085156440734863281 84.472811341285705566 83.830624699592590332 81.98703157901763916 77.256562948226928711 72.026718974113464355 66.847343325614929199 61.691249251365661621 56.51859360933303833 51.529062807559967041 47.239218950271606445 42.492812693119049072 38.621718645095825195 37.304218292236328125 35.980469346046447754 35.284219861030578613 36.208594262599945068 38.099688112735748291 43.594218850135803223 48.737656295299530029 52.599531233310699463 56.067812621593475342 58.864687860012054443 60.598281383514404297 61.547187566757202148 61.931562423706054688 62.318437516689300537 63.038750350475311279 64.701249897480010986 67.19562375545501709 69.75999915599822998 72.186874508857727051 73.952970623970031738 75.168127059936523438 76.321876406669616699 77.559687495231628418 78.47687375545501709 78.865781307220458984 79.19421851634979248 79.499530792236328125 79.765157103538513184 80.020312666893005371 80.280312299728393555 80.538750290870666504 80.741405606269836426 80.79437410831451416 80.810625314712524414 80.829375028610229492 80.84921872615814209 80.869218230247497559 80.890938162803649902 80.911249637603759766 80.941092491149902344 81.008281588554382324 81.010000824928283691 80.916405916213989258 80.820469498634338379 80.72937464714050293 80.637969851493835449 80.554531455039978027 80.468124270439147949 80.381719827651977539 80.240156054496765137 79.982500076293945312 79.676094293594360352 79.369531869888305664 79.060468435287475586 78.745624780654907227 78.348124504089355469 77.881875276565551758 77.410468697547912598 76.898749947547912598 76.150155544281005859 75.28046882152557373 74.411250114440917969 73.565000057220458984 72.774062275886535645 72.100000245230532414
92.75196347917828632 92.417028903961181641 91.99296724796295166 91.594062209129333496 91.297968387603759766 91.019531488418579102 90.737031459808349609 90.462032675743103027 90.203438639640808105 89.967968940734863281 89.744843482971191406 89.511875033378601074 89.269061684608459473 89.023593306541442871 88.784061551094055176 88.562499403953552246 88.370156168937683105 88.197657108306884766 88.027813553810119629 87.840780973434448242 87.620000362396240234 87.396406292915344238 87.170467734336853027 86.946405172348022461 86.714531302452087402 86.476875066757202148 86.240155816078186035 86.004218578338623047 85.772188305854797363 85.548123836517333984 85.316404938697814941 84.965467929840087891 84.430782556533813477 83.873906731605529785 83.315937519073486328 81.863905549049377441 77.642343282699584961 72.587968707084655762 67.75562441349029541 62.992499232292175293 58.127968430519104004 53.478281259536743164 49.140937685966491699 44.410156130790710449 39.711874544620513916 37.831561863422393799 36.858593881130218506 35.481407105922698975 35.366875171661376953 36.34421926736831665 39.578907251358032227 45.163593709468841553 49.624686837196350098 52.868593275547027588 55.021406769752502441 56.405156731605529785 57.656874656677246094 58.466718733310699463 59.016875267028808594 60.100156605243682861 61.767031192779541016 64.125311851501464844 66.695468485355377197 69.230155706405639648 71.654375433921813965 73.731406807899475098 75.311249613761901855 76.596718549728393555 77.59140622615814209 78.100311994552612305 78.423750162124633789 78.697344064712524414 78.967343568801879883 79.248436808586120605 79.533750414848327637 79.817500591278076172 80.066563725471496582 80.145469307899475098 80.166718840599060059 80.18953096866607666 80.211874842643737793 80.233906269073486328 80.255468487739562988 80.28546905517578125 80.362968564033508301 80.475312590599060059 80.483281373977661133 80.386718869209289551 80.285624980926513672 80.184999585151672363 80.08578193187713623 79.98999941349029541 79.894687414169311523 79.806719303131103516 79.697342991828918457 79.461874961853027344 79.156718254089355469 78.850000143051147461 78.543280601501464844 78.234531164169311523 77.889219403266906738 77.447343826293945312 76.973749399185180664 76.377969145774841309 75.546719193458557129 74.682187557220458984 73.858281493186950684 73.091562390327453613 72.344531893730163574 71.677677971976137883
92.311963898794985539 91.989060521125793457 91.567498564720153809 91.208906650543212891 90.929218292236328125 90.646562576293945312 90.364998817443847656 90.083436965942382812 89.80093693733215332 89.527031421661376953 89.272656917572021484 89.035000085830688477 88.795312166213989258 88.567031502723693848 88.367656707763671875 88.192343831062316895 88.022500276565551758 87.853907108306884766 87.685000300407409668 87.501875400543212891 87.283437013626098633 87.059530019760131836 86.83359372615814209 86.60890662670135498 86.377968192100524902 86.143281340599060059 85.903749823570251465 85.663280725479125977 85.420469164848327637 85.18000030517578125 84.92171788215637207 84.55390632152557373 84.093438386917114258 83.60484468936920166 82.993750333786010742 81.789688229560852051 78.226562380790710449 73.507031798362731934 68.825312495231628418 64.119531512260437012 59.406563162803649902 54.930937767028808594 50.542343497276306152 46.013437449932098389 41.075311899185180664 38.379843711853027344 37.420937657356262207 36.411093950271606445 35.204688310623168945 35.427500367164611816 36.921406924724578857 41.19671863317489624 46.073124825954437256 49.273749768733978271 51.055625021457672119 52.320781350135803223 53.530781567096710205 54.751875579357147217 56.030000030994415283 57.527499735355377197 59.076406121253967285 61.109843730926513672 63.631406426429748535 66.144218683242797852 68.628749370574951172 71.093125104904174805 73.461405515670776367 75.362812995910644531 76.577031970024108887 77.302498698234558105 77.68015587329864502 77.981406211853027344 78.286405801773071289 78.576093196868896484 78.851250290870666504 79.14343869686126709 79.414999842643737793 79.511875629425048828 79.533906221389770508 79.55546879768371582 79.576719403266906738 79.599687337875366211 79.631718754768371582 79.709375619888305664 79.830937862396240234 79.95031285285949707 79.954375267028808594 79.859999537467956543 79.758124589920043945 79.655625343322753906 79.55500030517578125 79.454843997955322266 79.353593707084655762 79.253124713897705078 79.160624384880065918 78.958593487739562988 78.646405696868896484 78.332031726837158203 78.023906826972961426 77.716094017028808594 77.401718616485595703 77.007186770439147949 76.51843726634979248 75.807500004768371582 74.960781574249267578 74.160937905311584473 73.410468935966491699 72.668437004089355469 71.92093658447265625 71.223392895289833859
91.873034749712260805 91.560310244560241699 91.152186393737792969 90.837968707084655762 90.55656278133392334 90.275001287460327148 89.993438005447387695 89.710470080375671387 89.428125262260437012 89.145781397819519043 88.867654919624328613 88.601562023162841797 88.372031331062316895 88.18671882152557373 88.017500638961791992 87.847969532012939453 87.679531455039978027 87.510469317436218262 87.342031478881835938 87.161874294281005859 86.948905348777770996 86.722968697547912598 86.498906850814819336 86.271875858306884766 86.040469050407409668 85.80749964714050293 85.56999969482421875 85.329999685287475586 85.090000152587890625 84.847031354904174805 84.558592915534973145 84.184375166893005371 83.762812137603759766 83.308124899864196777 82.744062662124633789 81.778437614440917969 78.762969613075256348 74.247658133506774902 69.660782098770141602 65.068436503410339355 60.58109360933303833 56.188125491142272949 51.800312221050262451 47.372968614101409912 42.660780727863311768 39.060937762260437012 37.882188141345977783 37.029062807559967041 36.06640625 35.10546875 35.62765657901763916 37.863906800746917725 42.159999966621398926 45.366093933582305908 47.089218556880950928 48.438906252384185791 49.709844112396240234 51.269687414169311523 53.059374511241912842 54.806562423706054688 56.459218502044677734 58.219530642032623291 60.561874628067016602 63.06078028678894043 65.549219012260437012 68.060468196868896484 70.69875025749206543 73.155156493186950684 75.216405391693115234 76.569687604904174805 77.045000076293945312 77.345624327659606934 77.615468025207519531 77.880624890327453613 78.173437833786010742 78.476876020431518555 78.762187480926513672 78.875781416893005371 78.899531245231628418 78.921874046325683594 78.944218635559082031 78.977656841278076172 79.058593392372131348 79.17953038215637207 79.30703127384185791 79.425623655319213867 79.425467610359191895 79.330000042915344238 79.229999661445617676 79.128125190734863281 79.025625109672546387 78.925156235694885254 78.830937385559082031 78.765625119209289551 78.740156292915344238 78.557811498641967773 78.216874599456787109 77.871250748634338379 77.535312891006469727 77.208906650543212891 76.89343714714050293 76.546874880790710449 76.020625829696655273 75.253438115119934082 74.480780959129333496 73.740155935287475586 73.005625128746032715 72.272500872611999512 71.531405925750732422 70.730714661734438664
91.430177824837826961 91.131091952323913574 90.756717205047607422 90.466250181198120117 90.184531092643737793 89.90328061580657959 89.620468258857727051 89.339531183242797852 89.063125729560852051 88.796563386917114258 88.538593530654907227 88.285312294960021973 88.044531106948852539 87.845625519752502441 87.674375653266906738 87.504999995231628418 87.336093783378601074 87.16750037670135498 86.997968316078186035 86.822812080383300781 86.611093759536743164 86.387031912803649902 86.161094188690185547 85.934844374656677246 85.703281521797180176 85.470000505447387695 85.235624551773071289 84.996249556541442871 84.756250262260437012 84.507188081741333008 84.179687142372131348 83.797344326972961426 83.398750543594360352 82.957031846046447754 82.453750133514404297 81.70218813419342041 79.073906421661376953 74.587032675743103027 70.048127293586730957 65.708593785762786865 61.424687445163726807 57.050000548362731934 52.59453129768371582 48.125468671321868896 43.766718626022338867 39.910468757152557373 38.288125455379486084 37.494062840938568115 36.722343802452087402 35.783593237400054932 35.062812983989715576 35.983125686645507812 38.055156350135803223 40.689219176769256592 42.822500348091125488 44.596250176429748535 46.296093583106994629 48.191562175750732422 50.082187652587890625 51.869375228881835938 53.603281199932098389 55.3587493896484375 57.537656307220458984 59.991406440734863281 62.503750324249267578 65.190936446189880371 67.938593387603759766 70.481717228889465332 72.90734398365020752 75.292031645774841309 76.365156412124633789 76.645936727523803711 76.908905982971191406 77.203280448913574219 77.506875038146972656 77.810001015663146973 78.100468993186950684 78.239062666893005371 78.265468597412109375 78.287031054496765137 78.321249723434448242 78.40468752384185791 78.527187228202819824 78.654999494552612305 78.78296816349029541 78.90093696117401123 78.898594021797180176 78.800469279289245605 78.699999570846557617 78.600000262260437012 78.49968719482421875 78.41843724250793457 78.383749842643737793 78.39046931266784668 78.392030954360961914 78.201874256134033203 77.856874942779541016 77.50296938419342041 77.149063825607299805 76.796564221382141113 76.447188854217529297 76.094062447547912598 75.586249947547912598 74.894061803817749023 74.186874866485595703 73.485624194145202637 72.784843802452087402 72.071249604225158691 71.259219050407409668 70.355892590114052609
90.986784662519184508 90.706247925758361816 90.376874446868896484 90.094532251358032227 89.81328272819519043 89.535470247268676758 89.266250133514404297 89.004999756813049316 88.752344131469726562 88.504532217979431152 88.255001068115234375 88.006875038146972656 87.754844307899475098 87.517031669616699219 87.331094145774841309 87.162031173706054688 86.992499947547912598 86.823905706405639648 86.654999494552612305 86.48281252384185791 86.27499997615814209 86.050000667572021484 85.826406598091125488 85.596093535423278809 85.364531040191650391 85.131875276565551758 84.899375319480895996 84.663749575614929199 84.423593878746032715 84.152032732963562012 83.790625691413879395 83.407500505447387695 83.019843220710754395 82.600000143051147461 82.099376559257507324 81.49890744686126709 79.396718263626098633 74.902030706405639648 70.436095356941223145 66.257969558238983154 61.985625207424163818 57.618594169616699219 53.089375019073486328 48.739531278610229492 44.5620308518409729 40.747968435287475586 38.759687483310699463 37.985000550746917725 37.205625236034393311 36.331562161445617676 35.327031195163726807 35.333437860012054443 36.065156340599060059 36.770625114440917969 38.392499685287475586 40.641562461853027344 42.80484306812286377 44.876405656337738037 46.915937840938568115 48.778906106948852539 50.449687361717224121 52.447812080383300781 54.771249532699584961 57.102656126022338867 59.640000522136688232 62.454062461853027344 65.236874997615814209 67.885468244552612305 70.58671879768371582 73.504687666893005371 75.478437304496765137 75.937343239784240723 76.23328101634979248 76.536874175071716309 76.840000152587890625 77.143126130104064941 77.438281416893005371 77.601092815399169922 77.632344365119934082 77.668592691421508789 77.75359344482421875 77.875 78.002968311309814453 78.130937695503234863 78.259062767028808594 78.376875162124633789 78.371093869209289551 78.2734375 78.170781373977661133 78.079219937324523926 78.026249289512634277 78.017186999320983887 78.030156254768371582 78.048437237739562988 78.044844388961791992 77.846718311309814453 77.5 77.146875858306884766 76.789844632148742676 76.432657122611999512 76.073281645774841309 75.705311894416809082 75.257812976837158203 74.6842193603515625 74.056249260902404785 73.384375095367431641 72.678437232971191406 71.876093149185180664 70.970781087875366211 70.048214776175356633
90.547498703002929688 90.299999117851257324 90.008593201637268066 89.736093282699584961 89.474843263626098633 89.221405744552612305 88.970155596733093262 88.72156214714050293 88.47453153133392334 88.225000381469726562 87.976875782012939453 87.729374885559082031 87.475156188011169434 87.222187161445617676 86.998749971389770508 86.819374561309814453 86.649531006813049316 86.480468034744262695 86.312030792236328125 86.140000224113464355 85.938282370567321777 85.713437318801879883 85.488905549049377441 85.259531736373901367 85.026562333106994629 84.794531345367431641 84.561874508857727051 84.327500224113464355 84.086093902587890625 83.778906106948852539 83.400156021118164062 83.015937089920043945 82.631874561309814453 82.233907938003540039 81.762814521789550781 81.317188501358032227 79.591406583786010742 74.98812556266784668 70.426250696182250977 66.24000018835067749 61.973124682903289795 57.717656195163726807 53.514531075954437256 49.422812163829803467 45.309843540191650391 41.631874680519104004 39.360312402248382568 38.458750128746032715 37.674843668937683105 36.698125660419464111 35.850469291210174561 35.066875159740447998 35.825000286102294922 35.997344136238098145 36.181093335151672363 37.128593683242797852 38.913593292236328125 41.043124794960021973 43.273280978202819824 45.36265641450881958 47.408593416213989258 49.751874685287475586 52.139844298362731934 54.499688208103179932 57.026250362396240234 59.782187938690185547 62.572655975818634033 65.448125958442687988 68.455469131469726562 71.519531011581420898 74.218280434608459473 75.22765660285949707 75.554062485694885254 75.864999294281005859 76.171719193458557129 76.476876020431518555 76.775468707084655762 76.962967872619628906 77.012345194816589355 77.10078120231628418 77.22343754768371582 77.350937724113464355 77.479062557220458984 77.60703122615814209 77.735000252723693848 77.851718544960021973 77.841874599456787109 77.74812471866607666 77.672188282012939453 77.647500753402709961 77.656718730926513672 77.67109370231628418 77.688905477523803711 77.703438162803649902 77.701874971389770508 77.493749737739562988 77.138749599456787109 76.779375076293945312 76.412500381469726562 76.045000195503234863 75.67984318733215332 75.321874856948852539 74.893906116485595703 74.330313324928283691 73.753748536109924316 73.159531712532043457 72.454530715942382812 71.574374198913574219 70.657811760902404785 69.751249994550434508
90.156963757106240109 89.95812523365020752 89.695313334465026855 89.438750028610229492 89.189373970031738281 88.940154910087585449 88.691561460494995117 88.444530844688415527 88.19499969482421875 87.946875095367431641 87.699375629425048828 87.450000762939453125 87.19609367847442627 86.943280577659606934 86.690156817436218262 86.47937464714050293 86.306093215942382812 86.137498855590820312 85.967967987060546875 85.797187089920043945 85.599218010902404785 85.378905653953552246 85.152343630790710449 84.921875 84.689532041549682617 84.456562638282775879 84.224531650543212891 83.992031097412109375 83.740156412124633789 83.398124098777770996 83.01640617847442627 82.634687304496765137 82.254218339920043945 81.873907089233398438 81.493594646453857422 81.155938625335693359 79.659219861030578613 75.002500176429748535 70.121719121932983398 65.897968292236328125 61.624531030654907227 57.296874523162841797 53.200156152248382568 49.425624847412109375 45.671249926090240479 42.492187619209289551 40.038594067096710205 38.748437821865081787 38.1020316481590271 37.175000667572021484 36.310469090938568115 35.278281688690185547 35.44546884298324585 36.002656638622283936 35.985468745231628418 36.008437037467956543 36.371562182903289795 37.602030575275421143 39.744061827659606934 42.183593332767486572 44.668281495571136475 47.08203125 49.473594367504119873 51.872031152248382568 54.410468578338623047 57.120000064373016357 59.867969036102294922 62.814219832420349121 65.940468847751617432 69.180623292922973633 72.417344093322753906 74.362344741821289062 74.846250534057617188 75.168906092643737793 75.487343788146972656 75.801094412803649902 76.117342948913574219 76.348437190055847168 76.456875085830688477 76.578750848770141602 76.705938339233398438 76.832032084465026855 76.958594679832458496 77.085313081741333008 77.211250782012939453 77.327969193458557129 77.32671821117401123 77.283594131469726562 77.280156731605529785 77.295936822891235352 77.30843818187713623 77.323749899864196777 77.336719036102294922 77.347812771797180176 77.30249941349029541 77.028750061988830566 76.650623917579650879 76.271718382835388184 75.903594493865966797 75.563438296318054199 75.259374499320983887 74.98421776294708252 74.536718010902404785 73.845780730247497559 73.207499980926513672 72.618593096733093262 71.999530434608459473 71.214999914169311523 70.313436388969421387 69.441785131181987367
89.889642170497353391 89.736719250679016113 89.500156760215759277 89.21734309196472168 88.941405534744262695 88.673281192779541016 88.418281793594360352 88.165313005447387695 87.916875839233398438 87.669376373291015625 87.420001506805419922 87.170001506805419922 86.916250705718994141 86.663750290870666504 86.406719326972961426 86.164687156677246094 85.965623974800109863 85.794373989105224609 85.625 85.455313563346862793 85.26406252384185791 85.041094064712524414 84.81499946117401123 84.583906412124633789 84.35046839714050293 84.11953127384185791 83.886562943458557129 83.656875729560852051 83.405782341957092285 83.060938000679016113 82.688437223434448242 82.310000300407409668 81.934530258178710938 81.561094164848327637 81.19546806812286377 80.872812271118164062 79.649063348770141602 74.93046879768371582 69.495313048362731934 65.107031166553497314 60.784061789512634277 56.533281147480010986 52.519375503063201904 48.838125050067901611 45.406406283378601074 42.845312416553497314 40.713437080383300781 39.102499783039093018 38.407030820846557617 37.643124938011169434 36.660781502723693848 35.823281407356262207 35.085313022136688232 35.854062795639038086 35.996718466281890869 35.980155825614929199 35.980155825614929199 36.099062144756317139 37.024218857288360596 39.12187492847442627 41.76906275749206543 44.340624809265136719 46.760156393051147461 49.16578143835067749 51.635937333106994629 54.306093931198120117 57.094062864780426025 60.125312507152557373 63.408905446529388428 66.712654709815979004 69.901874661445617676 72.657031774520874023 74.116407155990600586 74.598280906677246094 74.930937767028808594 75.263750314712524414 75.602029561996459961 75.89953160285949707 76.076407313346862793 76.195156574249267578 76.312655925750732422 76.430155754089355469 76.547499537467956543 76.665312409400939941 76.783750176429748535 76.91421973705291748 76.965624451637268066 76.949062705039978027 76.934687614440917969 76.933592677116394043 76.938436746597290039 76.944061994552612305 76.952344655990600586 76.924687027931213379 76.712812066078186035 76.367187857627868652 76.04359281063079834 75.751406073570251465 75.495625019073486328 75.257499933242797852 75.029999256134033203 74.773593425750732422 74.260468244552612305 73.505624532699584961 72.729530453681945801 72.029844284057617188 71.410781145095825195 70.772187352180480957 69.951561570167541504 69.108036449977333859
89.659108025687075383 89.51906287670135498 89.336719155311584473 89.080314040184020996 88.788281559944152832 88.496093273162841797 88.208280563354492188 87.927811264991760254 87.657656431198120117 87.396250128746032715 87.142187714576721191 86.891875267028808594 86.636249065399169922 86.38374936580657959 86.129532217979431152 85.875312447547912598 85.637031197547912598 85.451094150543212891 85.282032012939453125 85.112501144409179688 84.926719307899475098 84.706406831741333008 84.477499485015869141 84.2454681396484375 84.013437628746032715 83.780624270439147949 83.55187535285949707 83.334218382835388184 83.090000271797180176 82.748906373977661133 82.383750677108764648 82.009843111038208008 81.631718635559082031 81.260155320167541504 80.890000462532043457 80.525938272476196289 79.341249465942382812 74.652812361717224121 68.89593803882598877 64.16125023365020752 59.724530994892120361 55.457187533378601074 51.693437933921813965 48.320311844348907471 45.574843764305114746 43.99703061580657959 42.388593316078186035 40.050312221050262451 38.590781271457672119 37.95609360933303833 36.992656171321868896 36.312655925750732422 35.298438191413879395 35.400312900543212891 35.98578113317489624 35.982343494892120361 35.982968926429748535 35.985938310623168945 36.036249995231628418 36.679062366485595703 38.706875205039978027 41.39250028133392334 43.991249740123748779 46.446249842643737793 48.882031440734863281 51.414843976497650146 54.24625009298324585 57.402812600135803223 60.574219167232513428 63.684218764305114746 66.742969155311584473 69.776249051094055176 72.390625357627868652 73.921250581741333008 74.556563138961791992 74.904063701629638672 75.230936884880065918 75.549374699592590332 75.810937643051147461 75.953281998634338379 76.069063186645507812 76.185000061988830566 76.30093693733215332 76.417967915534973145 76.570156216621398926 76.748125433921813965 76.816874384880065918 76.807187438011169434 76.764062643051147461 76.723750114440917969 76.68609321117401123 76.652812957763671875 76.625001192092895508 76.493593573570251465 76.243437767028808594 75.997812747955322266 75.76500093936920166 75.537188053131103516 75.31000053882598877 75.083281874656677246 74.856406569480895996 74.554063081741333008 73.984061121940612793 73.248905420303344727 72.453750133514404297 71.648125171661376953 70.888281345367431641 70.218282103538513184 69.534844040870666504 68.76624992915562018
89.430714334760395445 89.289999723434448242 89.129062771797180176 88.933124780654907227 88.661249518394470215 88.368282437324523926 88.075000643730163574 87.783124566078186035 87.491874337196350098 87.201562285423278809 86.915781617164611816 86.632656335830688477 86.361405849456787109 86.10437476634979248 85.850000381469726562 85.595155954360961914 85.342187285423278809 85.118750691413879395 84.939375758171081543 84.769531965255737305 84.58671879768371582 84.369062662124633789 84.140468239784240723 83.908124446868896484 83.675468087196350098 83.446249604225158691 83.228906154632568359 83.022343635559082031 82.77390599250793457 82.429375171661376953 82.069843411445617676 81.705312132835388184 81.330468654632568359 80.957656502723693848 80.580469369888305664 80.170156717300415039 78.856875300407409668 73.993593692779541016 68.172656714916229248 63.048592805862426758 58.255312621593475342 53.79406285285949707 50.668906271457672119 48.942655980587005615 48.035780966281890869 46.930936932563781738 44.949218809604644775 41.872499942779541016 39.280468940734863281 38.152969181537628174 37.406093478202819824 36.877498924732208252 36.025156736373901367 35.064687848091125488 35.793124556541442871 35.988125205039978027 35.986876010894775391 35.990314066410064697 35.988595068454742432 36.002187788486480713 36.484218716621398926 38.244062066078186035 40.86999964714050293 43.50921863317489624 46.030625045299530029 48.526875436305999756 51.409218728542327881 54.540624260902404785 57.664686799049377441 60.792968451976776123 63.915937602519989014 66.904062449932098389 69.66750025749206543 71.974374294281005859 73.857813239097595215 74.658906936645507812 74.957656383514404297 75.206248879432678223 75.496405482292175293 75.712968826293945312 75.83703148365020752 75.95296943187713623 76.069844365119934082 76.218749165534973145 76.464687705039978027 76.616874098777770996 76.679375290870666504 76.715469598770141602 76.6920318603515625 76.647500514984130859 76.602499485015869141 76.557499408721923828 76.49718773365020752 76.290624499320983887 76.045156598091125488 75.817188024520874023 75.590000152587890625 75.363281130790710449 75.136718869209289551 74.909999847412109375 74.676718473434448242 74.310469746589660645 73.702655553817749023 72.980937361717224121 72.207343816757202148 71.399375677108764648 70.588437318801879883 69.79140627384185791 69.051250338554382324 68.385179383414126164
89.200713838849750914 89.06000053882598877 88.902030229568481445 88.740000009536743164 88.524061918258666992 88.241718173027038574 87.948281288146972656 87.6568756103515625 87.36500084400177002 87.071562409400939941 86.769687294960021973 86.443437933921813965 86.133594036102294922 85.841405987739562988 85.572343349456787109 85.316092729568481445 85.063280820846557617 84.810157060623168945 84.59937584400177002 84.426094293594360352 84.247812390327453613 84.031405329704284668 83.803437471389770508 83.570468544960021973 83.339530825614929199 83.122343063354492188 82.91750025749206543 82.711249709129333496 82.451874256134033203 82.103592991828918457 81.74890601634979248 81.389843106269836426 81.024687290191650391 80.62734377384185791 80.186875700950622559 79.588750839233398438 77.238437652587890625 72.13781273365020752 66.901093244552612305 61.899217724800109863 57.072500050067901611 54.034843981266021729 53.148437559604644775 52.613749802112579346 52.136093258857727051 51.132811903953552246 48.958593308925628662 45.969843924045562744 43.230312764644622803 40.486874639987945557 38.507187843322753906 37.540312230587005615 36.754531323909759521 35.410625159740447998 35.327968835830688477 35.959844291210174561 35.988907694816589355 35.993907272815704346 35.993594825267791748 35.989532589912414551 35.992187678813934326 36.268905818462371826 37.693124592304229736 40.202968418598175049 42.831562817096710205 45.423593997955322266 48.580156445503234863 51.785468518733978271 54.924530625343322754 58.059062004089355469 61.122655749320983887 64.062499582767486572 66.837188661098480225 69.234843611717224121 72.127498865127563477 74.408593893051147461 74.847656011581420898 75.011874556541442871 75.186562418937683105 75.430000662803649902 75.602812290191650391 75.721406221389770508 75.864374756813049316 76.128436923027038574 76.381874799728393555 76.469998598098754883 76.530001401901245117 76.587656497955322266 76.609843015670776367 76.576875448226928711 76.532343626022338867 76.486562371253967285 76.414687275886535645 76.156717538833618164 75.872968196868896484 75.643280982971191406 75.416718125343322754 75.18999946117401123 74.963280797004699707 74.736561894416809082 74.485780835151672363 74.048749566078186035 73.422968626022338867 72.702810883522033691 71.954530239105224609 71.15546882152557373 70.34453117847442627 69.533906221389770508 68.723593235015869141 68.014286722455707945
